# .PCD v0.7 - Point Cloud Data file format
VERSION 0.7
FIELDS x y z rgb
SIZE 4 4 4 4
TYPE F F F F
COUNT 1 1 1 1
WIDTH 1017
HEIGHT 1
VIEWPOINT 0 0 0 1 0 0 0
POINTS 1017
DATA ascii
0.10941585 -0.2883386 1.7590001 1.6775673e-38
0.11612704 -0.28473258 1.7545 1.8251154e-38
0.12590522 -0.28504845 1.7589999 1.9081627e-38
0.13579883 -0.28504845 1.7589999 1.9634441e-38
0.14560772 -0.28488454 1.758 1.9726638e-38
0.15541099 -0.2847206 1.757 2.0002863e-38
0.1652896 -0.28472808 1.757 2.0186898e-38
0.17517759 -0.28472623 1.757 2.0279451e-38
0.18473648 -0.28423822 1.7540001 2.0372007e-38
0.19482949 -0.28456229 1.756 2.0372364e-38
0.2040049 -0.28358999 1.7500001 2.0556395e-38
0.21384789 -0.28358999 1.7500001 2.0556395e-38
0.2236909 -0.28031665 1.7500002 2.0555678e-38
0.26593369 -0.28399915 1.7500001 2.0556395e-38
0.27587476 -0.28439465 1.755 2.0464198e-38
0.28530025 -0.28367689 1.755625 2.0372003e-38
0.29495025 -0.2841543 1.7516365 2.0371644e-38
0.30462214 -0.28468111 1.7500002 2.0279448e-38
-0.15276481 -0.27846813 1.7590001 1.7602161e-38
0.10885602 -0.27049667 1.7500001 1.6774238e-38
0.11620545 -0.27423871 1.755625 1.8433744e-38
0.12590522 -0.27517796 1.7589999 1.9357495e-38
0.1357988 -0.27517796 1.7589999 1.9910667e-38
0.14610466 -0.27558923 1.7589999 2.0095059e-38
0.15558603 -0.27517796 1.7589999 2.0187254e-38
0.16500361 -0.27439389 1.7540001 2.027945e-38
0.17517571 -0.27486134 1.757 2.0372003e-38
0.18526687 -0.27517796 1.7589999 2.046384e-38
0.194822 -0.27470866 1.756 2.04642e-38
0.20269251 -0.27507934 1.7500002 2.0556394e-38
0.21384791 -0.27704331 1.7500002 2.0464559e-38
0.22275347 -0.27423763 1.7500002 2.0556035e-38
0.25978184 -0.27376997 1.7500001 2.0648228e-38
0.26593369 -0.27336082 1.7500001 2.0556034e-38
0.275561 -0.2742449 1.753 2.046348e-38
0.28551736 -0.27423978 1.7509001 2.0279448e-38
0.29477915 -0.27595222 1.7500002 2.0279451e-38
0.10885602 -0.26722333 1.7500001 1.6775671e-38
0.11568745 -0.26455519 1.7540001 1.8434464e-38
0.1259052 -0.26530746 1.7589999 1.9450412e-38
0.1353277 -0.26624751 1.7590001 2.0003583e-38
0.14816582 -0.26613 1.7590001 2.009542e-38
0.15558602 -0.26530746 1.7589999 2.0187614e-38
0.16528772 -0.26500392 1.757 2.0280169e-38
0.1749782 -0.26470038 1.755 2.0463838e-38
0.18516341 -0.26515666 1.758 2.0556037e-38
0.19471104 -0.26470602 1.755 2.0464201e-38
0.20306748 -0.26348239 1.7500002 2.0556035e-38
0.22303469 -0.26525936 1.7500002 2.0556395e-38
0.25978184 -0.26394999 1.7500002 2.0556034e-38
0.2663438 -0.26394999 1.7500001 2.0464198e-38
0.27618685 -0.26395002 1.7500001 2.046384e-38
0.28356907 -0.26476833 1.7500001 2.0371644e-38
0.10754362 -0.25347534 1.7500002 1.6131741e-38
0.11594752 -0.25528988 1.758 1.8619215e-38
0.12590522 -0.25543696 1.7589999 1.9725919e-38
0.1353277 -0.2544969 1.7590001 2.0095776e-38
0.14610465 -0.25502571 1.7589999 2.0187256e-38
0.15558603 -0.25543693 1.7589999 2.0279451e-38
0.16464323 -0.25581449 1.7551429 2.0371644e-38
0.17511249 -0.25487012 1.7522501 2.0647511e-38
0.18463865 -0.25456941 1.753 2.046384e-38
0.19438006 -0.25442234 1.7520001 2.0464198e-38
0.2040049 -0.25413004 1.7500001 2.0556034e-38
0.25978184 -0.25249332 1.7500001 2.0556035e-38
0.26525018 -0.25522113 1.7500002 2.0556393e-38
0.27454633 -0.25576669 1.7500001 2.04642e-38
0.10685249 -0.24363212 1.7530001 1.6959694e-38
0.1159475 -0.24542499 1.758 1.9356775e-38
0.12590522 -0.24556647 1.7589999 1.9910666e-38
0.1357988 -0.24556647 1.7589999 2.0187613e-38
0.14560772 -0.24542876 1.758 2.027945e-38
0.15478995 -0.24431001 1.7500001 2.0371285e-38
0.16266434 -0.24365535 1.7500002 2.0279809e-38
0.17494465 -0.24337478 1.7500002 2.04642e-38
0.18464053 -0.24472883 1.753 2.0372004e-38
0.19416191 -0.24431001 1.7500001 2.0555674e-38
0.2040049 -0.24431001 1.7500001 2.0371645e-38
0.21056689 -0.24103668 1.7500001 2.0280526e-38
0.23572122 -0.24212781 1.7500002 2.0740068e-38
0.24091612 -0.24431001 1.7500001 2.0739709e-38
0.26306283 -0.24758334 1.7500001 2.0464557e-38
0.099013031 -0.2312167 1.7500001 1.5390921e-38
0.10605952 -0.2355601 1.758 1.8251143e-38
0.1160116 -0.23569597 1.7589999 1.9909947e-38
0.12590522 -0.23569597 1.7589999 2.0186894e-38
0.13579883 -0.23569597 1.7589999 2.0279447e-38
0.14569242 -0.23569597 1.7589999 2.0371284e-38
0.15532066 -0.23528838 1.756 2.0279448e-38
0.16405356 -0.23453444 1.7538573 2.0279807e-38
0.17447594 -0.23285335 1.7500002 2.0463484e-38
0.18431892 -0.23449002 1.7500001 2.0372006e-38
0.19427285 -0.23462589 1.751 2.046384e-38
0.20423618 -0.23475428 1.7520001 2.0187254e-38
0.21337919 -0.2335548 1.7500002 2.0188332e-38
0.22410101 -0.23408085 1.7500001 2.0556394e-38
0.23306517 -0.23542528 1.7500002 2.0648232e-38
0.24009587 -0.23776336 1.7500001 2.0740071e-38
-0.26533961 -0.22339594 1.7554001 1.5752325e-38
-0.25491858 -0.22416468 1.755625 1.6860538e-38
-0.24675409 -0.22253531 1.7590001 1.6673979e-38
0.098574691 -0.22471827 1.7567501 1.815822e-38
0.10658911 -0.22676553 1.7590001 1.9725196e-38
0.11601158 -0.22582547 1.7589999 2.0095054e-38
0.12590522 -0.2258255 1.7589999 2.0187612e-38
0.1357988 -0.22582547 1.7589999 2.0371284e-38
0.14569242 -0.2258255 1.7589999 2.0371284e-38
0.15558603 -0.22582547 1.7589999 2.0371287e-38
0.16528773 -0.22556683 1.757 2.0463482e-38
0.17467345 -0.22492306 1.7520001 2.0555318e-38
0.18431892 -0.22467004 1.7500001 2.0372004e-38
0.19449851 -0.22505331 1.753 2.046384e-38
0.20505409 -0.22582547 1.7589999 2.0371644e-38
0.21420886 -0.22505517 1.753 2.0463841e-38
0.22328076 -0.22507921 1.7500001 2.0556035e-38
0.23134655 -0.22685227 1.7500002 2.0740069e-38
0.28931081 -0.2213967 1.7500001 2.0371644e-38
0.29423231 -0.22303337 1.7500001 2.0463118e-38
0.30325505 -0.22467002 1.7500001 2.0371284e-38
-0.27361214 -0.21486041 1.7567501 1.537965e-38
-0.26517755 -0.21485005 1.7500001 1.7133459e-38
-0.25533453 -0.21485007 1.7500001 1.8424565e-38
-0.24604708 -0.21534303 1.7540001 1.8606064e-38
-0.11483931 -0.21595499 1.7590001 1.0679921e-38
0.088229239 -0.21303055 1.7530001 1.8155335e-38
0.094150558 -0.21573062 1.7572001 1.8894342e-38
0.10941585 -0.2143099 1.7590001 1.9910666e-38
0.1160116 -0.215955 1.7589999 2.0186893e-38
0.12590522 -0.215955 1.7589999 2.0371284e-38
0.1357988 -0.215955 1.7589999 2.046348e-38
0.14560771 -0.2158341 1.758 2.0371644e-38
0.15549758 -0.2158341 1.758 2.0555316e-38
0.16547963 -0.21595499 1.7589999 2.0555677e-38
0.17537326 -0.215955 1.7589999 2.046348e-38
0.18442236 -0.21497096 1.751 2.046348e-38
0.19460759 -0.21533553 1.7540001 2.0463841e-38
0.20458966 -0.21546578 1.755 2.0463841e-38
0.21396822 -0.2149747 1.751 2.0555677e-38
0.22040989 -0.21648671 1.7500001 2.0555675e-38
0.27946782 -0.21485004 1.7500001 2.0463481e-38
0.28649855 -0.21391483 1.7500002 2.0371645e-38
0.2954627 -0.2144409 1.7500001 2.0371647e-38
0.3057158 -0.21321338 1.7500002 2.0371647e-38
0.31391829 -0.21157672 1.7500001 2.0279448e-38
-0.27408725 -0.20555727 1.7545002 1.7776692e-38
-0.26517758 -0.20503005 1.7500001 1.9345056e-38
-0.25533453 -0.20503004 1.7500001 2.0266301e-38
-0.2459068 -0.20538153 1.753 1.9621623e-38
0.038314603 -0.20175673 1.7500001 1.3629418e-38
0.044403881 -0.20319371 1.7530001 1.269526e-38
0.054783609 -0.20201613 1.7522501 8.9156522e-39
0.067023322 -0.20257506 1.7500001 1.3070883e-38
0.076514773 -0.20409483 1.7500002 1.7230472e-38
0.086283557 -0.20596546 1.758 1.8985452e-38
0.09424565 -0.20542645 1.7590001 1.9263127e-38
0.10809671 -0.20542645 1.7590001 1.9726631e-38
0.1160116 -0.20608449 1.7589999 2.0095056e-38
0.1259052 -0.20608449 1.7589999 2.027945e-38
0.13579883 -0.20608449 1.7589999 2.0371647e-38
0.14543833 -0.20573302 1.756 2.0371643e-38
0.15478997 -0.20503005 1.7500001 2.046348e-38
0.16510332 -0.20562147 1.755 2.0371645e-38
0.17537326 -0.20608449 1.7589999 2.0371643e-38
0.18526685 -0.20608449 1.7589999 2.0555315e-38
0.19482386 -0.20573676 1.756 2.0463478e-38
0.20400491 -0.20666671 1.7500002 2.04642e-38
0.24665788 -0.20175675 1.7500002 2.0556393e-38
0.25814134 -0.20421173 1.7500001 2.0464201e-38
0.26593369 -0.20462088 1.7500001 2.0371645e-38
0.27618682 -0.20462088 1.7500001 2.0371287e-38
0.28602982 -0.20503005 1.7500001 2.0279448e-38
0.29587281 -0.20543921 1.7500001 2.0371285e-38
0.30524713 -0.20596531 1.7500002 2.0371645e-38
0.31337148 -0.20721227 1.7500002 2.0279088e-38
-0.27361214 -0.19678135 1.7567501 1.8795202e-38
-0.26548436 -0.19543129 1.7520001 1.9068827e-38
-0.25480631 -0.19498144 1.7509001 1.8514206e-38
-0.24690191 -0.19778316 1.7554001 1.8422729e-38
0.035185158 -0.19604388 1.7575001 1.4373488e-38
0.042139307 -0.19753008 1.7590001 1.6214506e-38
0.055990364 -0.19884613 1.7590001 1.473146e-38
0.066543542 -0.19715403 1.7590001 1.7877282e-38
0.076437153 -0.19621398 1.7589999 1.8709222e-38
0.086330764 -0.19621399 1.7589999 1.8894341e-38
0.096224368 -0.19621399 1.7589999 1.9356403e-38
0.10611797 -0.19621398 1.7589999 1.9725552e-38
0.1160116 -0.19621398 1.7589999 2.0095054e-38
0.12562263 -0.19577155 1.755 2.0279088e-38
0.13533559 -0.19555032 1.753 2.0279448e-38
0.14511076 -0.19543691 1.7520001 2.0371645e-38
0.15478998 -0.19614531 1.7500002 2.0371643e-38
0.16463293 -0.19521005 1.7500001 2.0371644e-38
0.1749763 -0.19577153 1.755 2.0371644e-38
0.18442237 -0.19532163 1.751 2.0371644e-38
0.19088094 -0.19521007 1.7500002 2.0372003e-38
0.24706799 -0.19521007 1.7500001 2.0463843e-38
0.25486034 -0.19521007 1.7500002 2.0371648e-38
0.2651501 -0.1955447 1.7530001 2.027945e-38
0.27577668 -0.19561924 1.7500001 2.0371287e-38
0.28438932 -0.19848339 1.7500001 2.0371284e-38
0.30352849 -0.19630119 1.7500002 2.0371285e-38
0.31227779 -0.19848339 1.7500001 2.0370927e-38
-0.25994557 -0.18963367 1.7590001 1.897667e-38
-0.083774328 -0.18352006 1.7530001 1.6850826e-38
0.024370369 -0.18293507 1.7500001 1.4276636e-38
0.032843329 -0.18662353 1.7554001 1.7785087e-38
0.059947804 -0.18634352 1.7590002 1.889145e-38
0.066543534 -0.18634351 1.7589999 1.8707784e-38
0.076437153 -0.18634352 1.7589999 1.8801065e-38
0.086330764 -0.18634352 1.7589999 1.9079095e-38
0.096224368 -0.18634352 1.7589999 1.94486e-38
0.10611798 -0.18634352 1.7589999 1.981739e-38
0.11601158 -0.18634351 1.7589999 2.0095056e-38
0.12540789 -0.18560381 1.7520001 2.0279447e-38
0.13533747 -0.18571164 1.753 2.0371641e-38
0.14494698 -0.18539008 1.7500001 2.0371643e-38
0.15424314 -0.18429896 1.7500002 2.0371643e-38
0.16463293 -0.1849809 1.7500001 2.046384e-38
0.17447592 -0.18539007 1.7500001 2.0555675e-38
0.18431892 -0.18539007 1.7500001 2.0556395e-38
0.19088092 -0.18866341 1.7500001 2.0556393e-38
0.24829836 -0.18866341 1.7500001 2.0463125e-38
0.25814134 -0.18702674 1.7500001 2.0371285e-38
0.26528046 -0.18673886 1.7511251 2.0370925e-38
0.27509317 -0.1875723 1.7500002 2.0371287e-38
-0.082475647 -0.17601734 1.7545002 1.879959e-38
-0.075535968 -0.17360608 1.7500002 1.8891062e-38
-0.064380579 -0.17360608 1.7500002 1.7780022e-38
0.01534763 -0.17557007 1.7500002 1.6584032e-38
0.023621155 -0.17607172 1.755 1.8247148e-38
0.032578349 -0.17621502 1.7564287 1.8707058e-38
0.055990357 -0.17647301 1.7590001 1.898401e-38
0.066543534 -0.17647301 1.7589999 1.8893257e-38
0.076437153 -0.17647301 1.7589999 1.9078372e-38
0.086330764 -0.17647302 1.7589999 1.9263489e-38
0.096111216 -0.17627235 1.757 1.9541158e-38
0.10611797 -0.17647301 1.7589999 1.9909944e-38
0.11574402 -0.1760717 1.755 2.0186893e-38
0.1253307 -0.1756704 1.751 2.0372004e-38
0.13510399 -0.17557009 1.7500001 2.0463837e-38
0.14494698 -0.17557009 1.7500001 2.0555675e-38
0.15437983 -0.1751609 1.7500001 2.0555674e-38
0.16463295 -0.17720674 1.7500002 2.0555674e-38
0.17447595 -0.17884342 1.7500002 2.0555674e-38
0.18431894 -0.17884342 1.7500002 2.0556035e-38
0.25978184 -0.17720675 1.7500001 2.0371643e-38
0.26306283 -0.17884341 1.7500001 2.0463119e-38
-0.074040025 -0.16740948 1.756 1.8799254e-38
-0.065227911 -0.16717002 1.7551429 1.9167309e-38
-0.055786569 -0.16611061 1.7538573 1.9166942e-38
-0.045434173 -0.1627553 1.7530001 1.8985433e-38
-0.035507813 -0.16247676 1.7500002 1.9260576e-38
-0.025664825 -0.16247676 1.7500001 1.9260578e-38
-0.0027047878 -0.16124947 1.7545002 1.8799976e-38
0.0042038658 -0.16354416 1.7545 1.889181e-38
0.013755533 -0.16466907 1.7560003 1.8799614e-38
0.023671236 -0.16495742 1.7590002 1.8707777e-38
0.032465551 -0.1655058 1.7589999 1.8799977e-38
0.045107387 -0.16002218 1.7590001 1.898473e-38
0.055000994 -0.16495743 1.7590003 1.8985452e-38
0.066543534 -0.16495743 1.7590002 1.9078729e-38
0.07643716 -0.16495742 1.7590002 1.9355322e-38
0.086330764 -0.16495743 1.7590002 1.9540077e-38
0.096224368 -0.16495743 1.7590002 1.9725191e-38
0.10611798 -0.16495743 1.7590002 2.0002499e-38
0.11550035 -0.16569214 1.7563 2.0187251e-38
0.12518382 -0.16543303 1.7536001 2.0371644e-38
0.13557272 -0.16481486 1.7500002 2.0556035e-38
0.14494698 -0.1657501 1.7500001 2.0647871e-38
0.15478997 -0.1657501 1.7500001 2.0555674e-38
0.16416423 -0.16481486 1.7500002 2.04642e-38
0.25978184 -0.16411343 1.7500001 2.0555319e-38
0.26470333 -0.16411343 1.7500001 2.0463122e-38
0.27290583 -0.16247676 1.7500001 2.0371284e-38
-0.042855822 -0.15574649 1.7554001 1.8984004e-38
-0.035927217 -0.15566799 1.7545 1.8891451e-38
-0.025723485 -0.15628092 1.7540001 1.8891091e-38
-0.016284926 -0.15683626 1.755625 1.8983644e-38
-0.0059965337 -0.15700747 1.756 1.8984004e-38
0.0038840147 -0.15344188 1.7589999 1.8892174e-38
0.013777625 -0.15344186 1.7589999 1.8799618e-38
0.023671234 -0.15344188 1.7589999 1.8708142e-38
0.031915911 -0.15344188 1.7590001 1.88007e-38
0.056649931 -0.15426441 1.7589999 1.907837e-38
0.066543542 -0.15391189 1.7590001 1.9171651e-38
0.076437153 -0.15344186 1.7589999 1.9448599e-38
0.086330764 -0.15344188 1.7589999 1.972483e-38
0.096224368 -0.15344188 1.7589999 1.9909583e-38
0.10611797 -0.15344188 1.7589999 2.00025e-38
0.1157691 -0.15476452 1.7554001 2.0279447e-38
0.12567112 -0.15552095 1.7500001 2.0371644e-38
0.13510399 -0.15593012 1.7500001 2.046384e-38
0.14494698 -0.1559301 1.7500001 2.0464198e-38
0.15478997 -0.1559301 1.7500001 2.0372003e-38
0.16463293 -0.15593012 1.7500001 2.0555677e-38
0.17338228 -0.15702122 1.7500002 2.0555677e-38
0.18431893 -0.15429345 1.7500001 2.0556395e-38
0.19088092 -0.15429345 1.7500001 2.0464197e-38
0.20564541 -0.15265678 1.7500001 2.064823e-38
0.25978184 -0.1559301 1.7500002 2.0371644e-38
0.26634383 -0.15686534 1.7500002 2.0371285e-38
0.27290583 -0.15756677 1.7500001 2.0371284e-38
0.0038840149 -0.14357138 1.7589999 1.88007e-38
0.013777626 -0.14357136 1.7589999 1.8615949e-38
0.023671236 -0.14357138 1.7589999 1.8524113e-38
0.031915911 -0.14357138 1.7590001 1.8708505e-38
0.069841407 -0.14357138 1.7590002 1.9448599e-38
0.076437153 -0.14357138 1.7589999 1.9541153e-38
0.086330764 -0.14357136 1.7589999 1.972519e-38
0.096224368 -0.14357138 1.7589999 1.9818106e-38
0.10611798 -0.14357138 1.7589999 2.0002859e-38
0.11580811 -0.14441761 1.756 2.0279447e-38
0.12505835 -0.14560238 1.7518002 2.0463122e-38
0.13510399 -0.14611012 1.7500001 2.0371643e-38
0.14579858 -0.14597303 1.7563 2.0464198e-38
0.15496311 -0.14627524 1.7520001 2.0556034e-38
0.16463293 -0.14611012 1.7500001 2.0556395e-38
0.17447592 -0.14611013 1.7500001 2.0464201e-38
0.18377209 -0.14665568 1.7500002 2.046456e-38
0.19416191 -0.14611012 1.7500001 2.0556035e-38
0.2040049 -0.14611012 1.7500001 2.0740066e-38
0.21056691 -0.14611012 1.7500002 2.0556397e-38
0.25978184 -0.14611012 1.7500001 2.0371284e-38
0.26437524 -0.14676479 1.7500002 2.0371283e-38
0.27946782 -0.14938344 1.7500001 2.0371285e-38
-0.36327884 -0.13150744 1.7590002 2.1094274e-38
-0.35558379 -0.13041072 1.7590001 2.1276867e-38
-0.34898806 -0.13041072 1.7590001 2.0815885e-38
-0.00436066 -0.13041072 1.7590001 1.8985449e-38
0.0038840149 -0.13370088 1.7589999 1.8893256e-38
0.013777626 -0.13370086 1.7589999 1.8708862e-38
0.023671234 -0.13370086 1.7589999 1.8708865e-38
0.032622594 -0.13370089 1.7590001 1.8893616e-38
0.053352065 -0.13041072 1.7590001 1.9540076e-38
0.067014664 -0.13276084 1.7590001 1.9632631e-38
0.076346494 -0.13354699 1.757 1.9633352e-38
0.086469032 -0.13367829 1.7533751 1.9817744e-38
0.096224368 -0.13370089 1.7589999 1.9910303e-38
0.10611797 -0.13370086 1.7589999 2.0186891e-38
0.11628033 -0.13428713 1.7580999 2.0371285e-38
0.12590759 -0.13457716 1.7549093 2.0372004e-38
0.13523033 -0.13522114 1.7516365 2.0556035e-38
0.14505377 -0.1345787 1.7549093 2.0556034e-38
0.1546177 -0.13577227 1.7518002 2.0647871e-38
0.16244562 -0.13847235 1.7500002 2.0464919e-38
0.17775694 -0.13956346 1.7500001 2.0464559e-38
0.18431892 -0.13629013 1.7500001 2.0556393e-38
0.19509934 -0.13675776 1.7500002 2.0740066e-38
0.20400491 -0.13825412 1.7500002 2.0648232e-38
0.21220739 -0.13956346 1.7500001 2.0739708e-38
0.25978184 -0.13792679 1.7500001 2.0371644e-38
0.26306283 -0.13956346 1.7500001 2.0371641e-38
-0.37207314 -0.12054022 1.7590001 2.1459056e-38
-0.36506516 -0.12341911 1.7589999 2.2382465e-38
-0.35558382 -0.12383039 1.7589999 2.1737089e-38
-0.34898806 -0.12054022 1.7590001 2.1275378e-38
-0.25087643 -0.12383039 1.7590001 1.852774e-38
-0.24675409 -0.12383039 1.7590001 1.8712131e-38
-0.055477645 -0.12054022 1.7590001 1.9077287e-38
-0.044924464 -0.12185629 1.7590001 1.8893619e-38
-0.025796814 -0.12054022 1.7590001 1.9078365e-38
-0.019201076 -0.12054022 1.7590001 1.9078003e-38
-0.0050673466 -0.12336037 1.7590001 1.9077284e-38
0.0038840147 -0.12383039 1.7589999 1.8985449e-38
0.013777626 -0.12383039 1.7589999 1.8893616e-38
0.023671234 -0.12383039 1.7589999 1.8985815e-38
0.032245696 -0.12383039 1.7590001 1.9170566e-38
0.056649935 -0.12054022 1.7590002 1.9724827e-38
0.066543534 -0.12383039 1.7589999 1.9817383e-38
0.076437153 -0.12383037 1.7589999 1.9725909e-38
0.085958496 -0.12442169 1.7580999 1.9909943e-38
0.096224368 -0.12383039 1.7589999 2.00025e-38
0.10611798 -0.12383039 1.7589999 2.0278728e-38
0.11559935 -0.12424165 1.7589999 2.0371643e-38
0.12590522 -0.12383039 1.7589999 2.046384e-38
0.13551919 -0.12422825 1.7554001 2.0556037e-38
0.14544018 -0.12361732 1.756 2.0556035e-38
0.15478997 -0.12647013 1.7500002 2.064823e-38
0.16135195 -0.12974346 1.7500001 2.0556753e-38
0.17447594 -0.12974346 1.7500001 2.0648228e-38
0.1833815 -0.12647015 1.7500002 2.0740065e-38
0.24337687 -0.1281068 1.7500001 2.0647509e-38
0.25978184 -0.12974346 1.7500001 2.0463837e-38
0.27290583 -0.12974346 1.7500001 2.0279809e-38
-0.3728976 -0.11478244 1.7590001 2.0908036e-38
-0.36547741 -0.11395989 1.7589999 2.2752351e-38
-0.35599601 -0.11437117 1.7589999 2.2197704e-38
-0.34733915 -0.11560498 1.7590001 2.1367955e-38
-0.25087643 -0.11313735 1.7590001 1.8527015e-38
-0.055477645 -0.11725006 1.7590001 1.916984e-38
-0.04558403 -0.11395989 1.7589999 1.8893976e-38
-0.037889004 -0.11286318 1.7590002 1.9078003e-38
-0.025796816 -0.11478244 1.7590001 1.91702e-38
-0.019201076 -0.11560498 1.7590001 1.9078366e-38
-0.0050673466 -0.11348988 1.7590001 1.9078366e-38
0.0038840147 -0.11395989 1.7589999 1.9078368e-38
0.013777626 -0.11395989 1.7589999 1.9170567e-38
0.023671236 -0.11395989 1.7589999 1.917057e-38
0.031915911 -0.1139599 1.7590001 1.9355682e-38
0.046756323 -0.11725006 1.7590001 1.9632631e-38
0.055000998 -0.1139599 1.7590002 1.9817023e-38
0.066543542 -0.11395989 1.7589999 1.9817744e-38
0.076437153 -0.11395989 1.7589999 1.9818107e-38
0.086330764 -0.11395991 1.7589999 2.0002499e-38
0.096224368 -0.11395989 1.7589999 2.0095054e-38
0.10605577 -0.113897 1.758 2.0279447e-38
0.1159208 -0.11420977 1.7527001 2.046348e-38
0.12555106 -0.11363971 1.7540001 2.0556034e-38
0.13525465 -0.11350825 1.7520001 2.0556394e-38
0.14543831 -0.11376553 1.756 2.0556035e-38
0.15478995 -0.11501348 1.7500002 2.0647513e-38
0.16463295 -0.11010348 1.7500002 2.0556037e-38
0.17119494 -0.11010348 1.7500001 2.0740066e-38
0.18431893 -0.11501348 1.7500001 2.0740427e-38
-0.37207314 -0.10408941 1.7590002 2.0721837e-38
-0.36547741 -0.10408941 1.7589999 2.1459398e-38
-0.35723275 -0.1040894 1.7590001 2.1735987e-38
-0.25115126 -0.10628285 1.7590002 1.8248632e-38
-0.043935101 -0.1040894 1.7590001 1.898617e-38
-0.035690423 -0.10737957 1.7590001 1.9169121e-38
-0.025796814 -0.10737957 1.7590001 1.9262037e-38
-0.019201076 -0.10737957 1.7590001 1.9354237e-38
-0.0050673466 -0.10455943 1.7590001 1.9079451e-38
0.0038840149 -0.10408941 1.7589999 1.9263483e-38
0.013769791 -0.1040321 1.758 1.9355682e-38
0.023671234 -0.10408941 1.7589999 1.9448239e-38
0.033111785 -0.10354919 1.75675 1.9725186e-38
0.044282921 -0.1040894 1.7590001 1.9817743e-38
0.055000998 -0.1040894 1.7590002 2.0001774e-38
0.066543542 -0.1040894 1.7589999 2.0093973e-38
0.076437153 -0.10408941 1.7589999 2.0186171e-38
0.086330764 -0.10408942 1.7589999 2.0186893e-38
0.096167788 -0.10403209 1.758 2.0279087e-38
0.1046376 -0.10402443 1.7500002 2.0371283e-38
0.11213702 -0.10683015 1.7500001 2.046384e-38
0.1272296 -0.10355683 1.7500002 2.0464201e-38
0.13510399 -0.10355682 1.7500001 2.0464557e-38
0.14494698 -0.10355682 1.7500001 2.0464198e-38
0.15478995 -0.10355683 1.7500001 2.04642e-38
0.16369551 -0.10308921 1.7500002 2.0464201e-38
0.17529619 -0.10110183 1.7500001 2.0556035e-38
0.18513918 -0.10110183 1.7500001 2.064859e-38
0.19416192 -0.10355683 1.7500002 2.0740785e-38
0.20400491 -0.10421149 1.7500002 2.0648232e-38
0.21425802 -0.10355683 1.7500001 2.0556035e-38
0.22533138 -0.10683015 1.7500001 2.0464198e-38
-0.36415824 -0.09553498 1.7590001 2.053745e-38
-0.35723275 -0.09421891 1.7590001 2.0629657e-38
-0.043935098 -0.097509079 1.7590001 1.9169844e-38
-0.0051851277 -0.095041454 1.7590001 1.9264206e-38
0.0038840149 -0.094218917 1.7589999 1.9448596e-38
0.013777626 -0.09421891 1.7589999 1.9540793e-38
0.023671234 -0.09421891 1.7589999 1.9724827e-38
0.03347506 -0.093952961 1.7540001 1.9910299e-38
0.040160585 -0.092573829 1.7590001 2.00025e-38
0.0562835 -0.094584487 1.7589999 2.0093973e-38
0.066543534 -0.094218917 1.7589999 2.0094334e-38
0.076437153 -0.09421891 1.7589999 2.0370561e-38
0.086330764 -0.09421891 1.7589999 2.0370924e-38
0.0958924 -0.093895651 1.753 2.0279807e-38
0.10229403 -0.093736842 1.7500002 2.0463838e-38
0.11869901 -0.092100173 1.7500001 2.0464559e-38
0.12526099 -0.093736835 1.7500001 2.0464559e-38
0.13510399 -0.093736835 1.7500001 2.0464557e-38
0.14494698 -0.093736842 1.7500001 2.0464559e-38
0.15478995 -0.093736835 1.7500001 2.064823e-38
0.16463293 -0.093736835 1.7500001 2.0556394e-38
0.17447592 -0.093736835 1.7500001 2.0556395e-38
0.18431892 -0.093736835 1.7500001 2.064895e-38
0.19361508 -0.09482795 1.7500002 2.0648591e-38
0.21712889 -0.097010165 1.7500001 2.0556034e-38
-0.35888168 -0.087638579 1.7590001 1.9985424e-38
-0.029094685 -0.081058256 1.7590001 1.9448596e-38
0.0055329497 -0.084348425 1.7590001 1.9632992e-38
0.013777625 -0.084348418 1.7589999 1.9817023e-38
0.023671234 -0.084348418 1.7589999 1.990958e-38
0.032622594 -0.084818445 1.7590001 2.009433e-38
0.04279888 -0.08369039 1.7590001 2.0094693e-38
0.055450708 -0.084348425 1.7590002 2.0094693e-38
0.066543542 -0.084348418 1.7589999 2.018689e-38
0.076437153 -0.084348418 1.7589999 2.0279087e-38
0.086228855 -0.084254391 1.757 2.0370922e-38
0.095732033 -0.08391685 1.7500001 2.0371284e-38
0.10557503 -0.081952848 1.7500002 2.0372004e-38
0.11541801 -0.083916835 1.7500001 2.0372363e-38
0.1253307 -0.083962925 1.751 2.0464559e-38
0.13469386 -0.084326014 1.7500001 2.0556395e-38
0.14494699 -0.085553512 1.7500002 2.0648231e-38
0.16266434 -0.083916843 1.7500002 2.0556395e-38
0.17775695 -0.083916843 1.7500002 2.0556035e-38
0.18431892 -0.08391685 1.7500001 2.0556035e-38
0.19088092 -0.085553512 1.7500001 2.0556394e-38
-0.032392554 -0.074477926 1.7590002 1.9448596e-38
-0.025796814 -0.074947946 1.7590001 1.9540793e-38
-0.014960956 -0.074947946 1.7590001 1.9632633e-38
-0.006009595 -0.076123007 1.7590001 1.9725184e-38
0.0055329497 -0.074477926 1.7590001 1.9817024e-38
0.013777624 -0.074477926 1.7589999 1.990958e-38
0.023671234 -0.074477918 1.7589999 2.0002136e-38
0.03315261 -0.074477926 1.7589999 2.0186886e-38
0.043458454 -0.074477911 1.7589999 2.0186528e-38
0.055000998 -0.074477926 1.7590002 2.018653e-38
0.066543534 -0.07488919 1.7589999 2.0278727e-38
0.076437153 -0.074477918 1.7589999 2.0370922e-38
0.086128823 -0.074308559 1.755 2.0370922e-38
0.095843315 -0.074179664 1.7520001 2.0371283e-38
0.10563723 -0.07413733 1.751 2.0463838e-38
0.11594751 -0.074433714 1.758 2.0372362e-38
0.12554169 -0.074268088 1.7540001 2.0463838e-38
0.13313539 -0.074751519 1.7500002 2.0464201e-38
0.15807095 -0.074096851 1.7500001 2.04642e-38
0.16369551 -0.073629238 1.7500002 2.046384e-38
0.26962483 -0.074096851 1.7500001 2.0371643e-38
0.27553064 -0.074096851 1.7500002 2.046348e-38
0.28493616 -0.073551297 1.7500002 2.0279447e-38
0.3024348 -0.072460189 1.7500001 2.0371283e-38
-0.03321702 -0.06378489 1.7590001 1.9632987e-38
-0.025796816 -0.064196162 1.7589999 1.9725184e-38
-0.015490971 -0.064196162 1.7589999 1.9817383e-38
-0.006009595 -0.062962353 1.7590001 1.9817743e-38
0.0038840147 -0.064607427 1.7589999 1.990958e-38
0.013777626 -0.064607434 1.7589999 1.9909943e-38
0.023671236 -0.064607434 1.7589999 2.0002499e-38
0.033528555 -0.064537719 1.757 2.018689e-38
0.043458458 -0.064607434 1.7589999 2.0278367e-38
0.055000998 -0.064607434 1.7590002 2.0278725e-38
0.066543542 -0.064607434 1.7589999 2.0279086e-38
0.076257706 -0.064458646 1.755 2.018725e-38
0.086038157 -0.064383313 1.753 2.0371283e-38
0.096171536 -0.064568833 1.758 2.0371284e-38
0.10611797 -0.064607427 1.7589999 2.0463838e-38
0.11574215 -0.064462379 1.755 2.0372004e-38
0.1232924 -0.064931527 1.7500002 2.0372003e-38
0.14658748 -0.062640198 1.7500001 2.0371643e-38
0.15525869 -0.063341632 1.7500002 2.0463482e-38
0.16463293 -0.064276852 1.7500001 2.0463841e-38
0.17338228 -0.065367974 1.7500002 2.0648228e-38
0.27782732 -0.06755019 1.7500001 2.0462761e-38
0.28602982 -0.064744487 1.7500002 2.0187251e-38
0.29833356 -0.063458532 1.7500001 2.0279087e-38
0.30505961 -0.063622199 1.7500002 2.027909e-38
-0.033711702 -0.055394974 1.7590001 1.981738e-38
-0.025796814 -0.054736931 1.7589999 1.981774e-38
-0.015903207 -0.054736931 1.7589999 2.0001414e-38
-0.0060095945 -0.054736931 1.7589999 1.9817744e-38
0.0038840149 -0.054736931 1.7589999 2.0002136e-38
0.013777625 -0.054736931 1.7589999 2.0094333e-38
0.023671234 -0.054736931 1.7589999 2.0094334e-38
0.033092428 -0.055041075 1.755625 2.0186888e-38
0.043458454 -0.056382015 1.7590001 2.0278724e-38
0.050054193 -0.0580271 1.7590001 2.0278724e-38
0.066955775 -0.054325663 1.7589999 2.0371281e-38
0.076170802 -0.054550223 1.753 2.0463474e-38
0.085889049 -0.054456871 1.7500001 2.0463834e-38
0.096171536 -0.054707691 1.758 2.0371645e-38
0.10593324 -0.054645449 1.756 2.0463838e-38
0.11432435 -0.055547982 1.7500002 2.0464197e-38
0.14588442 -0.053989254 1.7500002 2.0371644e-38
0.15347758 -0.055766203 1.7500002 2.046348e-38
0.16135195 -0.057730202 1.7500001 2.0463484e-38
0.28602982 -0.054456875 1.7500002 2.0094697e-38
0.29628292 -0.054047707 1.7500001 2.0186534e-38
0.30440339 -0.055766206 1.7500002 2.0186894e-38
-0.034041487 -0.046511523 1.7590001 1.9725906e-38
-0.025796814 -0.046511527 1.7590001 1.9909939e-38
-0.01656278 -0.046840541 1.7590001 1.9818103e-38
-0.0050673466 -0.04533647 1.7590001 1.9910658e-38
0.0038840147 -0.044866446 1.7589999 2.0002853e-38
0.01375821 -0.044817299 1.757 2.0095047e-38
0.023590494 -0.044719007 1.753 2.0186887e-38
0.033070959 -0.044344597 1.7545 2.018689e-38
0.043458454 -0.041576277 1.7590002 2.018725e-38
0.050054193 -0.043221362 1.7590001 2.0371281e-38
0.066543534 -0.044866439 1.7589999 2.0370921e-38
0.076172672 -0.044709656 1.753 2.0371641e-38
0.085889049 -0.044636879 1.7500001 2.0463837e-38
0.095843315 -0.044691637 1.7520001 2.0463838e-38
0.1056938 -0.044691637 1.7520001 2.0463837e-38
0.11213702 -0.044636887 1.7500002 2.0555674e-38
0.13592423 -0.042181883 1.7500001 2.046384e-38
0.14494698 -0.044636883 1.7500001 2.0463838e-38
0.15150897 -0.044636887 1.7500002 2.0371641e-38
0.27782732 -0.041363552 1.7500001 2.0002499e-38
0.2871235 -0.043545775 1.7500002 2.0002141e-38
0.29259181 -0.044636883 1.7500001 2.0002501e-38
-0.025796814 -0.034995951 1.7590001 2.0093971e-38
-0.019201076 -0.034995951 1.7590001 2.009433e-38
-0.0055973614 -0.035407223 1.7589999 2.0094329e-38
0.0038840149 -0.034995954 1.7589999 2.0094333e-38
0.01375821 -0.034954291 1.757 2.0094689e-38
0.023561705 -0.034834914 1.751 2.0278723e-38
0.033435024 -0.034858551 1.7520001 2.0279084e-38
0.043458458 -0.034995951 1.7589999 2.018725e-38
0.054451354 -0.033899233 1.7589999 2.0463475e-38
0.066543542 -0.034995951 1.7589999 2.0463477e-38
0.076221749 -0.034900215 1.7540001 2.0372e-38
0.086134441 -0.034912631 1.755 2.037236e-38
0.095896155 -0.034870967 1.753 2.037236e-38
0.1056938 -0.034852944 1.7520001 2.0463838e-38
0.11541801 -0.034816891 1.7500001 2.046384e-38
0.12479229 -0.033881653 1.7500002 2.0463838e-38
0.13510399 -0.034816891 1.7500001 2.0555675e-38
0.14166598 -0.034816891 1.7500002 2.0464198e-38
0.26962483 -0.034816891 1.7500002 1.9818474e-38
0.27577668 -0.035226058 1.7500001 1.9818473e-38
0.28602982 -0.038090222 1.7500002 1.9910306e-38
0.0038840149 -0.025125455 1.7589999 2.0094691e-38
0.013777625 -0.025125459 1.7589999 2.009505e-38
0.023561703 -0.025009315 1.751 2.0186888e-38
0.033455983 -0.025039755 1.753 2.0278727e-38
0.043458454 -0.025125457 1.7589999 2.0370922e-38
0.055000998 -0.025125457 1.7590002 2.0371283e-38
0.066507585 -0.025113042 1.758 2.0463478e-38
0.076395579 -0.025109302 1.758 2.0464197e-38
0.086330764 -0.025125459 1.7589999 2.0555672e-38
0.096171536 -0.025111174 1.758 2.0555675e-38
0.10581071 -0.02505591 1.7540001 2.0463478e-38
0.11568557 -0.025057778 1.7540001 2.0279809e-38
0.1253307 -0.025013054 1.751 2.0371643e-38
0.13510399 -0.02540607 1.7500001 2.0463478e-38
0.14166598 -0.026633566 1.7500001 2.0463838e-38
0.15807095 -0.021723572 1.7500001 2.0372001e-38
0.16557036 -0.024529284 1.7500002 2.0372003e-38
0.17283544 -0.024996903 1.7500002 2.0372003e-38
0.25978184 -0.021723572 1.7500001 1.9909948e-38
-0.035690423 -0.015254965 1.7590002 1.9910297e-38
-0.0038110153 -0.016351685 1.7590002 1.9818105e-38
0.0038840147 -0.015254964 1.7589999 2.0002138e-38
0.013777625 -0.015254964 1.7589999 1.9910663e-38
0.023640569 -0.015235749 1.757 2.0002859e-38
0.033473186 -0.015209732 1.7540001 2.0187249e-38
0.043458458 -0.015254964 1.7589999 2.0279446e-38
0.055000998 -0.015254965 1.7590002 2.0371283e-38
0.066274978 -0.015192387 1.7520001 2.0372e-38
0.076182045 -0.015202929 1.753 2.0371641e-38
0.086330764 -0.015254964 1.7589999 2.0371641e-38
0.096001804 -0.015220274 1.755 2.0279446e-38
0.10557503 -0.015176914 1.7500001 2.0370922e-38
0.11500789 -0.015586078 1.7500001 2.0279088e-38
0.1239486 -0.015831579 1.7500002 2.0371284e-38
0.13510399 -0.018450242 1.7500001 2.0463478e-38
0.15807095 -0.015176911 1.7500001 2.0463478e-38
0.16557036 -0.014709295 1.7500002 2.0371645e-38
0.17391826 -0.014747555 1.7538573 2.0371643e-38
0.25978184 -0.016813576 1.7500001 1.9909587e-38
-0.25302577 -0.0037367102 1.7567501 1.8259632e-38
-0.24314483 -0.0045592515 1.7567501 1.835361e-38
-0.23460561 -0.0037340312 1.7545002 1.8721663e-38
-0.22744611 -0.0020835912 1.7500001 1.8445443e-38
-0.042286165 -0.0053844713 1.7590001 1.9448246e-38
-0.036514889 -0.0053844713 1.7590001 1.9448965e-38
-0.022498945 -0.002094307 1.7590001 1.9357128e-38
-0.01425427 -0.002094307 1.7590001 1.9356768e-38
-0.0046904474 -0.0040684054 1.7590001 1.9448965e-38
0.0038840147 -0.0053844708 1.7589999 1.9541162e-38
0.013777625 -0.0053844713 1.7589999 1.9541522e-38
0.023640571 -0.0053764782 1.757 1.9725913e-38
0.033473182 -0.0053672954 1.7540001 1.972627e-38
0.043458458 -0.0053844713 1.7589999 1.9818469e-38
0.055000998 -0.0053844713 1.7590002 1.9910666e-38
0.066466004 -0.0053746086 1.757 2.000286e-38
0.076176427 -0.0053642341 1.753 1.9910665e-38
0.085889049 -0.0053569218 1.7500001 1.9910666e-38
0.095732033 -0.0053569218 1.7500001 1.9910665e-38
0.10557503 -0.0053569218 1.7500001 1.9818828e-38
0.11494931 -0.0044216844 1.7500002 1.9634439e-38
0.1236205 -0.0020835912 1.7500001 1.9541525e-38
0.15807095 -0.0086302515 1.7500001 2.0279806e-38
0.16627344 -0.0086302515 1.7500001 2.0187972e-38
0.17283544 -0.0086302515 1.7500001 2.0279806e-38
0.19744292 -0.0020835912 1.7500001 1.9726992e-38
0.20400491 -0.0037202563 1.7500002 1.9080552e-38
0.21056689 -0.0037202563 1.7500001 1.8619575e-38
0.25978184 -0.0053569213 1.7500001 1.88054e-38
-0.26387799 0.004468807 1.7522501 1.6137352e-38
-0.25697505 0.0011897387 1.7500001 1.8074162e-38
-0.22527146 0.0020096009 1.7522501 1.807451e-38
-0.21705972 0.006439615 1.7536001 1.7615318e-38
-0.053828709 0.0044860216 1.7590001 1.9356045e-38
-0.042286165 0.0044860216 1.7590001 1.9356049e-38
-0.03527819 0.0040747514 1.7589999 1.935605e-38
-0.025796816 0.0061311042 1.7590001 1.9264212e-38
-0.015903205 0.0061311042 1.7590001 1.9264571e-38
-0.006009595 0.0044860216 1.7589999 1.9264573e-38
0.0038840149 0.0044860225 1.7589999 1.9264931e-38
0.013777626 0.0044860221 1.7589999 1.9264934e-38
0.023671234 0.0044860216 1.7589999 1.9356773e-38
0.033545766 0.0044853417 1.758 1.9448962e-38
0.043458454 0.0044860225 1.7589999 1.9449326e-38
0.055000991 0.0044860216 1.7590002 1.9449329e-38
0.06650383 0.0044816011 1.758 1.9541163e-38
0.076046057 0.0044630687 1.7500001 1.9541163e-38
0.085889049 0.0044630691 1.7500001 1.9541522e-38
0.09578862 0.0044674897 1.751 1.9541523e-38
0.10605952 0.0044853417 1.758 1.9357492e-38
0.1156762 0.0044732699 1.7540001 1.9357849e-38
0.1232924 0.0038084027 1.7500002 1.9357492e-38
0.1471343 0.0066452883 1.7500002 1.9357494e-38
0.15396971 0.0069180662 1.7500001 1.9264939e-38
0.16299245 0.0077363988 1.7500001 1.908127e-38
0.18759993 0.0060997335 1.7500001 1.4199622e-38
0.19457203 0.0048722355 1.7500001 1.7516116e-38
0.20291124 0.0039175139 1.7500002 1.7329917e-38
0.21056689 0.0011897387 1.7500001 1.7236642e-38
-0.26750836 0.014319788 1.7545002 1.6776616e-38
-0.21541587 0.013228677 1.7545002 1.7151115e-38
-0.052179776 0.014356515 1.7590001 1.9356765e-38
-0.043935098 0.014356515 1.7590001 1.9448605e-38
-0.035690423 0.013945243 1.7589999 1.9356769e-38
-0.025796816 0.014356515 1.7589999 1.9448603e-38
-0.015903207 0.014356515 1.7589999 1.9356409e-38
-0.006009595 0.014356515 1.7589999 1.9448605e-38
0.0038840147 0.014356515 1.7589999 1.9448963e-38
0.013777626 0.014356514 1.7589999 1.9357488e-38
0.023671234 0.014356514 1.7589999 1.9448966e-38
0.0335076 0.01433203 1.756 1.9449323e-38
0.044092424 0.014676503 1.7580999 1.9449325e-38
0.055450708 0.014057409 1.7590002 1.9357488e-38
0.066466004 0.01433645 1.757 1.9541162e-38
0.076129213 0.014297512 1.7520001 1.9357489e-38
0.085889049 0.014283059 1.7500001 1.9449326e-38
0.096060254 0.014337641 1.756 1.9449328e-38
0.10599545 0.01433645 1.757 1.9449686e-38
0.11554617 0.014297512 1.7520001 1.9449329e-38
0.1246048 0.014937726 1.7500002 1.9357492e-38
0.13576019 0.016247055 1.7500002 1.9265655e-38
0.14520109 0.014307544 1.753 1.9173464e-38
0.15514189 0.014317576 1.7540001 1.9172744e-38
0.16463293 0.014283059 1.7500001 1.8435179e-38
0.17119494 0.017556388 1.7500001 1.2425912e-38
0.19416194 0.011009729 1.7500002 1.2723784e-38
0.20236441 0.011009729 1.7500001 1.6039552e-38
-0.26750836 0.024165027 1.7545002 1.6222731e-38
-0.21201876 0.02483209 1.7554001 1.6320656e-38
-0.044484746 0.02532373 1.7590001 1.9449322e-38
-0.035690427 0.024227006 1.7589999 1.9448965e-38
-0.025796814 0.024227008 1.7589999 1.9632996e-38
-0.01631544 0.024638278 1.7589999 1.9632996e-38
-0.0060095955 0.024227006 1.7589999 1.9633353e-38
0.0038840147 0.024227008 1.7589999 1.9725549e-38
0.013777626 0.024227006 1.7589999 1.9909581e-38
0.023655904 0.024211364 1.758 1.9909941e-38
0.033490393 0.024170045 1.755 2.0002134e-38
0.044946503 0.024142966 1.7530001 1.99103e-38
0.056649931 0.024227006 1.7589999 1.9910302e-38
0.06631656 0.02414998 1.753 1.9909943e-38
0.076046057 0.024103049 1.7500001 1.9817747e-38
0.085889049 0.024103049 1.7500001 1.9725912e-38
0.095843315 0.024126858 1.7520001 1.9725553e-38
0.10587291 0.024168175 1.755 1.9633717e-38
0.11344942 0.023448383 1.7500002 1.9541522e-38
0.13674448 0.02492138 1.7500001 1.9633359e-38
0.14511639 0.024128724 1.7520001 1.9541162e-38
0.15505344 0.024140628 1.753 1.9356772e-38
0.16463293 0.024103049 1.7500001 1.8893973e-38
0.17119496 0.024103051 1.7500002 1.5011303e-38
-0.26773566 0.03404215 1.756 1.7141505e-38
-0.20829014 0.034010269 1.7545002 1.5855042e-38
-0.053828713 0.0340975 1.7590001 1.954116e-38
-0.04558403 0.0340975 1.7589999 1.9449684e-38
-0.035690423 0.0340975 1.7589999 1.954152e-38
-0.025796814 0.0340975 1.7589999 1.972555e-38
-0.015903205 0.0340975 1.7589999 1.9633357e-38
-0.006009595 0.0340975 1.7589999 1.9725908e-38
0.0038840149 0.0340975 1.7589999 1.9818463e-38
0.013777625 0.0340975 1.7589999 1.9910303e-38
0.023611782 0.034018088 1.755 2.0094336e-38
0.033435024 0.03396181 1.7520001 2.0095053e-38
0.044000104 0.034013636 1.7545 2.0095054e-38
0.055450708 0.0340975 1.7590002 2.0186888e-38
0.066543542 0.0340975 1.7589999 2.0002856e-38
0.076087631 0.033944294 1.751 2.0094691e-38
0.085889049 0.033923037 1.7500001 2.0002499e-38
0.09578862 0.033942424 1.751 1.9910662e-38
0.10575226 0.033979323 1.753 1.9818467e-38
0.11213702 0.033923037 1.7500002 1.9818828e-38
0.13838498 0.032286372 1.7500001 2.0371638e-38
0.14494698 0.033923041 1.7500001 2.037164e-38
0.15432127 0.032987803 1.7500002 2.0278727e-38
0.16135195 0.033923037 1.7500002 1.9911019e-38
0.25978184 0.037196368 1.7500001 1.8158587e-38
0.26675397 0.034332201 1.7500001 1.7789446e-38
-0.26339447 0.04303718 1.7545002 1.9076516e-38
-0.25615481 0.046198025 1.7500001 1.8061996e-38
-0.22252461 0.04701636 1.7500001 1.3913546e-38
-0.21459134 0.04297673 1.7522502 1.4008625e-38
-0.053828709 0.040677831 1.7590001 1.954116e-38
-0.04558403 0.043967996 1.7589999 1.9541518e-38
-0.035670135 0.043944869 1.758 1.9449679e-38
-0.025796814 0.043967996 1.7589999 1.9449682e-38
-0.015903205 0.043967996 1.7589999 1.954152e-38
-0.0060043032 0.043941129 1.758 1.9633713e-38
0.0038840147 0.043968 1.7589999 1.9634076e-38
0.013777626 0.043967992 1.7589999 1.972627e-38
0.023561703 0.043769896 1.751 1.9909944e-38
0.033455979 0.043818016 1.753 1.9910663e-38
0.043458454 0.043968 1.7589999 1.9910662e-38
0.055000998 0.043967992 1.7590002 2.0002496e-38
0.066543534 0.043967996 1.7589999 2.0002138e-38
0.076261453 0.043873623 1.755 2.00025e-38
0.086085364 0.043844886 1.7540001 2.000214e-38
0.096062131 0.043894876 1.756 1.9910663e-38
0.10563535 0.04376616 1.751 1.9910663e-38
0.11448059 0.04421065 1.7500002 2.0003215e-38
0.13619766 0.042651922 1.7500002 2.0464196e-38
0.14494699 0.042106368 1.7500002 2.0464197e-38
0.15478997 0.041779038 1.7500002 2.0279086e-38
0.16135195 0.042106364 1.7500001 1.9818825e-38
0.26634383 0.042106364 1.7500001 1.8250786e-38
-0.25322151 0.05236724 1.7536001 1.9813742e-38
-0.24491248 0.053178918 1.7525716 1.8060571e-38
-0.23527649 0.053668424 1.7533751 1.621809e-38
-0.22802675 0.050419006 1.7545002 1.4557838e-38
-0.09175422 0.057128649 1.7590001 1.9725546e-38
-0.043935098 0.050548322 1.7590001 1.9541518e-38
-0.034748178 0.053368464 1.7590001 1.9541156e-38
-0.025782149 0.053806003 1.758 1.9449323e-38
-0.015870793 0.053714182 1.755 1.9541519e-38
-0.0059937206 0.053746667 1.756 1.9541159e-38
0.0038830154 0.053746659 1.756 1.9450044e-38
0.013777625 0.053838484 1.7589999 1.9542239e-38
0.023561705 0.053595494 1.751 1.9634075e-38
0.033473186 0.053687315 1.7540001 1.972627e-38
0.043458458 0.053838484 1.7589999 1.9726631e-38
0.055000998 0.053838488 1.7590002 1.9818466e-38
0.066543534 0.05383848 1.7589999 1.9910304e-38
0.076437153 0.05383848 1.7589999 1.9910663e-38
0.086279809 0.053807877 1.758 1.9910306e-38
0.09589427 0.053654842 1.753 2.0002499e-38
0.10557503 0.05028969 1.7500002 2.0094334e-38
0.11541801 0.053563017 1.7500001 2.0186888e-38
0.1246048 0.05552702 1.7500002 2.0279446e-38
-0.24015836 0.060418814 1.7590001 2.0554179e-38
-0.088456348 0.066999137 1.7590001 1.9633712e-38
-0.075264871 0.065354057 1.7590001 1.9817381e-38
-0.062073387 0.066999137 1.7590001 1.9449681e-38
-0.058775514 0.066999137 1.7590001 1.9449679e-38
-0.043385457 0.065902419 1.7590002 1.95408e-38
-0.034748178 0.064179003 1.7590001 1.9448962e-38
-0.025694598 0.06410455 1.7518002 1.9448963e-38
-0.015821837 0.06457331 1.7500002 1.9448963e-38
-0.005659671 0.064168058 1.7536001 1.9448963e-38
0.0038770575 0.063558489 1.755 1.954116e-38
0.014098676 0.064331047 1.7580999 1.9357848e-38
0.023305366 0.064719953 1.754091 1.9449682e-38
0.033174433 0.064719953 1.754091 1.954152e-38
0.043458458 0.063708968 1.7589999 1.9725912e-38
0.05533563 0.064161122 1.7576157 1.972591e-38
0.066152409 0.064808846 1.7565455 1.9634075e-38
0.076222301 0.064718418 1.7540911 1.9726273e-38
0.085924461 0.065046832 1.7507501 1.9818469e-38
0.093857192 0.06572111 1.7500002 1.9726994e-38
0.11705852 0.065019675 1.7500001 2.037164e-38
0.1259172 0.062073674 1.7500002 2.0371641e-38
0.17119494 0.069929667 1.7500001 1.981666e-38
-0.062897854 0.072756931 1.7590001 1.9449684e-38
-0.058775514 0.073579475 1.7590002 1.9449323e-38
-0.044484742 0.074127838 1.7590001 1.9357128e-38
-0.035690427 0.073579475 1.7589999 1.9356768e-38
-0.025767485 0.074586928 1.757 1.9357126e-38
-0.016290877 0.075124122 1.75675 1.935677e-38
-0.0064218286 0.073990747 1.7589999 1.9356768e-38
0.0038743787 0.07408186 1.7554001 1.9357488e-38
0.013425016 0.075385638 1.7524548 1.9264932e-38
0.023919618 0.075934604 1.7527001 1.9356766e-38
0.033455983 0.07551071 1.753 1.9449323e-38
0.043458454 0.070289306 1.7590002 1.9633717e-38
0.054551288 0.073878564 1.7590002 1.972555e-38
0.066817693 0.074301995 1.7538573 1.9634075e-38
0.076267138 0.074355774 1.7551429 1.9634076e-38
0.085889056 0.074839666 1.7500002 1.9910304e-38
0.095732041 0.076476328 1.7500002 1.9818472e-38
0.10604374 0.07741157 1.7500002 2.0003579e-38
0.11295727 0.076476328 1.7500001 2.0187609e-38
0.12526099 0.076476328 1.7500001 2.0279806e-38
0.13510399 0.074839666 1.7500001 2.0463837e-38
0.17119494 0.073202997 1.7500001 1.9724823e-38
-0.062073387 0.085095048 1.7590001 1.9725193e-38
-0.057676226 0.084546685 1.7590002 1.9633356e-38
-0.044264887 0.082791924 1.7590001 1.9449322e-38
-0.03527819 0.083038688 1.7589999 1.9449323e-38
-0.025796814 0.083861232 1.7589999 1.9448963e-38
-0.015490972 0.083861232 1.7589999 1.9448963e-38
-0.006009595 0.083449967 1.7589999 1.9265291e-38
0.0041968161 0.084828764 1.7536001 1.9173097e-38
0.013707131 0.086296327 1.7500001 1.9172738e-38
0.023550121 0.086296327 1.7500001 1.9356769e-38
0.033455979 0.085347533 1.753 1.9265294e-38
0.043458458 0.08476603 1.7590001 1.9265297e-38
0.055000998 0.08344996 1.7590002 1.9357851e-38
0.066543534 0.083449967 1.7589999 1.9541522e-38
0.076437153 0.08344996 1.7589999 1.9725913e-38
0.086330764 0.08344996 1.7589999 1.9726275e-38
0.095537432 0.084202215 1.7551429 1.9726275e-38
0.10585213 0.084878758 1.7545002 1.9910669e-38
0.11361516 0.085495472 1.756 2.000286e-38
0.1236205 0.089569651 1.7500001 2.000214e-38
0.15478997 0.089569651 1.7500001 1.9817384e-38
-0.062073387 0.099900782 1.7590001 1.356143e-38
-0.03404149 0.09496554 1.7589999 1.8438777e-38
-0.025785817 0.094922945 1.7582501 1.8622449e-38
-0.015895018 0.094922945 1.7582501 1.8529894e-38
-0.006009595 0.09496554 1.7590002 1.8345502e-38
0.0035369426 0.095604889 1.7527001 1.7976723e-38
0.013707131 0.096116319 1.7500001 1.7240957e-38
0.023550121 0.096116319 1.7500001 1.6778905e-38
0.033777799 0.095604889 1.7527001 1.733136e-38
0.043458458 0.097268648 1.7590001 1.6503405e-38
0.055070031 0.095008172 1.7578003 1.8622089e-38
0.066373296 0.094714187 1.7545003 1.9173821e-38
0.076308191 0.094796561 1.756 1.9542958e-38
0.086330764 0.094965518 1.7590002 1.9542602e-38
0.096224368 0.094965532 1.7590002 1.9634795e-38
0.10611798 0.09496554 1.7590002 1.9818828e-38
0.11601159 0.09496554 1.7590002 1.9910663e-38
0.12471417 0.096116319 1.7500002 1.9910303e-38
0.13510399 0.099389642 1.7500001 2.0278004e-38
0.15478997 0.097752973 1.7500001 1.9818099e-38
-0.075264871 0.10977127 1.7590002 1.6769154e-38
-0.064271972 0.10702947 1.7590001 1.3813538e-38
-0.056027293 0.10702947 1.7590001 1.3724572e-38
-0.04558403 0.10648111 1.7589999 1.307347e-38
-0.035219304 0.10695114 1.7590001 1.2893751e-38
-0.025796814 0.10648111 1.7589999 9.1148383e-39
-0.015903207 0.10648112 1.7589999 6.9068432e-39
-0.0059819296 0.1060555 1.7520001 9.2059522e-39
0.0038641423 0.1059363 1.7500001 1.0307256e-38
0.013714964 0.1059987 1.751 9.3878155e-39
0.023563579 0.10599871 1.751 8.0992375e-39
0.033455983 0.1061179 1.753 7.736936e-39
0.044611122 0.10667963 1.7573638 7.738745e-39
0.055294875 0.10526756 1.751 8.5735574e-39
0.066203065 0.1059363 1.7500001 7.9299929e-39
0.076134838 0.10605738 1.7520001 8.3934877e-39
0.085987203 0.10605363 1.7520001 8.5782307e-39
0.096171536 0.10641871 1.758 8.8526568e-39
0.10611798 0.10648111 1.7589999 9.7728054e-39
0.1156762 0.10617657 1.7540001 1.069223e-38
0.12526099 0.10266297 1.7500002 1.7518264e-38
0.135104 0.10429963 1.7500002 1.4295037e-38
0.14166598 0.10266297 1.7500001 1.7795207e-38
0.24753755 -0.69326776 1.7680001 1.1799674e-38
0.0022465156 -0.68003976 1.7680001 1.391936e-38
0.065226644 -0.68003976 1.7680001 1.5578176e-38
0.074176453 -0.68136257 1.768 1.4836284e-38
0.082629055 -0.68169326 1.7680001 1.4928122e-38
0.10666094 -0.68003976 1.7680001 1.6774934e-38
0.12721236 -0.682024 1.768 1.5851872e-38
0.13317889 -0.68169326 1.7680001 1.6129901e-38
0.14643787 -0.68169332 1.7680001 1.640791e-38
0.15638208 -0.68169332 1.7680001 1.6591947e-38
0.16632633 -0.68003976 1.7680001 1.769868e-38
0.17627056 -0.68003976 1.7680001 1.7883426e-38
0.1875407 -0.682024 1.768 1.6775626e-38
0.19615902 -0.68334681 1.768 1.6129901e-38
0.2027885 -0.68665373 1.7680001 1.3548083e-38
0.21936223 -0.68665373 1.7680001 1.4099839e-38
0.22599171 -0.6855514 1.7680001 1.5206895e-38
0.23593594 -0.68334681 1.768 1.668346e-38
0.24753755 -0.68996072 1.7680001 1.2902411e-38
0.27902761 -0.68830723 1.7680001 1.4833459e-38
0.28399974 -0.68996072 1.7680001 1.3907561e-38
-0.0027255998 -0.67342573 1.7680001 1.557965e-38
0.0022465156 -0.67673278 1.7680001 1.5304839e-38
0.066884018 -0.67507923 1.7680001 1.5672203e-38
0.073513508 -0.67342579 1.7679999 1.5763326e-38
0.083457731 -0.67301238 1.7679999 1.5763684e-38
0.093401968 -0.67177224 1.768 1.594808e-38
0.10545558 -0.67312515 1.7679999 1.6132461e-38
0.11619083 -0.67301238 1.7679999 1.6132465e-38
0.12588646 -0.67408717 1.768 1.6683841e-38
0.13317889 -0.67507923 1.7680001 1.6684201e-38
0.14478049 -0.67673278 1.7680001 1.6961504e-38
0.1679837 -0.67507923 1.7680001 1.7146253e-38
0.17516565 -0.67563045 1.7680001 1.7237731e-38
0.18290004 -0.67673278 1.7680001 1.7422121e-38
0.19450164 -0.67673278 1.7680001 1.7514674e-38
0.22267696 -0.67673278 1.7680001 1.7975648e-38
0.23483102 -0.67563045 1.7680001 1.7883455e-38
-0.024271432 -0.66019773 1.7680001 1.3918338e-38
-0.016647523 -0.66218203 1.768 1.4013425e-38
-0.0038305144 -0.66240245 1.7680001 1.5027204e-38
0.0055612591 -0.66019773 1.7680001 1.5302356e-38
0.066884018 -0.66350478 1.7680001 1.5854804e-38
0.075170875 -0.66350478 1.768 1.5671491e-38
0.083457746 -0.66350478 1.7679999 1.5947354e-38
0.093401968 -0.66350478 1.7679999 1.6039549e-38
0.10485291 -0.66320413 1.7679999 1.6132105e-38
0.11411911 -0.6643315 1.7680001 1.6223941e-38
0.21604748 -0.66019773 1.7680001 1.751503e-38
-0.024271432 -0.65027678 1.7680001 1.4010909e-38
-0.015984574 -0.65523726 1.7680001 1.3645727e-38
-0.0027255998 -0.65358377 1.7680001 1.5027207e-38
0.0043182303 -0.65358377 1.7679999 1.5119042e-38
0.012190746 -0.65193027 1.7680001 1.5302713e-38
0.040366068 -0.65027678 1.7680001 1.5303791e-38
0.075170875 -0.65358377 1.768 1.567149e-38
0.083457738 -0.65358377 1.7679999 1.5947714e-38
0.093401968 -0.65358382 1.7679999 1.6132104e-38
0.10500358 -0.65358371 1.7679999 1.6224302e-38
-0.015984576 -0.64366281 1.7680001 9.4101718e-39
-0.0027255998 -0.64366275 1.7680001 1.5302e-38
0.0039038875 -0.64366275 1.7679999 1.5026489e-38
0.012190746 -0.64283603 1.7680001 1.5118323e-38
0.020477606 -0.64035577 1.7680001 1.5118685e-38
0.030421836 -0.64035577 1.7680001 1.5394187e-38
0.054287989 -0.64300138 1.768 1.5487103e-38
0.063983612 -0.64324939 1.7679999 1.5671133e-38
0.073513508 -0.64366281 1.7679999 1.5855518e-38
0.083931282 -0.64366281 1.768 1.5947717e-38
0.093401968 -0.64366275 1.7679999 1.6131747e-38
0.10500358 -0.64366281 1.7679999 1.6316494e-38
0.11329043 -0.64366275 1.7680001 1.6683838e-38
0.17682302 -0.64421391 1.768 1.7330283e-38
-0.0027255998 -0.63704878 1.7680001 1.4844259e-38
0.0039038872 -0.63539529 1.768 1.5118686e-38
0.013848118 -0.6350646 1.768 1.5026479e-38
